# .PCD v0.7 - Point Cloud Data file format
VERSION 0.7
FIELDS x y z
SIZE 4 4 4
TYPE F F F
COUNT 1 1 1
WIDTH 1485
HEIGHT 1
VIEWPOINT 0 0 0 1 0 0 0
POINTS 1485
DATA ascii
34.054035 -6.8515377 -0.26175368
38.921738 -6.660841 -0.29799807
14.213007 -2.0663445 -0.084362879
8.847043 -1.0261122 -0.10267791
8.8151407 -0.75724268 -0.064311951
8.8137236 -0.48885939 -0.082345612
8.7952013 -0.26319659 -0.040532291
8.8012695 0.010224666 -0.04858537
8.7670259 0.24300547 -0.044372413
8.6508083 0.4957917 -0.074788056
8.5910931 0.73244977 -0.046831496
8.5795479 0.98143601 -0.070768081
8.6309042 1.244826 -0.053376783
8.6074371 1.4843484 -0.039497983
8.6394558 1.7437397 -0.057101771
8.6861219 1.9890364 -0.043662865
8.6133099 2.2523742 -0.024671327
8.6435452 2.5093455 -0.070322357
8.6285906 2.8025575 -0.081402563
8.6441965 3.0752847 -0.06933748
8.6562748 3.331392 -0.13049088
8.6503115 3.6174788 -0.066564277
8.608902 3.9106591 -0.071112871
8.6531296 4.2274532 -0.071976617
8.5413456 4.4583569 -0.093297102
8.6809883 4.8853106 -0.10764296
8.6993656 5.2142248 -0.060285982
8.685976 5.492146 -0.06575413
8.6678991 5.8693347 -0.034905389
8.2468433 5.9154501 -0.063779764
7.9481292 6.0386825 -0.080504045
7.4904995 6.0631561 -0.046625905
6.8077188 5.7900085 -0.0598539
6.6873112 6.001008 -0.062509432
6.7117982 6.4052868 -0.081163108
6.6494732 6.7566128 -0.083129399
6.6737614 7.1477156 -0.062120467
6.5389037 7.3896384 -0.089742906
6.5296726 7.8091507 -0.092942439
6.465488 8.2576923 -0.035761528
6.5678678 8.8348675 -0.11842439
6.5285907 9.3598785 -0.090957269
6.5710797 9.9857664 -0.10238325
6.5056372 10.589412 -0.079062231
6.5258389 11.303651 -0.099966943
6.2751441 11.603159 -0.089988969
5.8426833 11.588217 -0.095527925
5.7945347 12.411633 -0.12018114
5.8149872 13.303141 -0.062928587
5.7933874 14.401247 -0.10908116
5.7629256 15.587261 -0.13387501
15.708504 46.412548 -0.34382498
14.389718 46.838207 -0.34382498
13.059423 47.226402 -0.34382498
11.718682 47.576824 -0.34382498
10.368567 47.889191 -0.34382498
9.0101595 48.16325 -0.34382498
8.3281851 48.285847 -0.34382498
9.0098696 -48.161701 -0.52244842
10.368234 -47.887646 -0.52244842
11.718305 -47.575291 -0.52244842
13.059002 -47.224884 -0.52244842
14.389255 -46.8367 -0.52244842
3.9575348 -11.685797 -0.13656807
3.6764486 -9.8653727 -0.14016452
3.7748752 -9.3763075 -0.10863284
3.7736375 -8.7206516 -0.097467326
3.8064411 -8.1038427 -0.082937151
3.7974424 -7.4599171 -0.077749111
3.7936816 -6.9700732 -0.10469792
3.7506032 -6.5150995 -0.085927397
3.8336763 -6.2684069 -0.073507644
3.8923423 -5.8881631 -0.073580183
3.8619356 -5.5648079 -0.073777467
3.8454609 -5.1992774 -0.039317865
4.0363536 -5.2008862 -0.066670761
4.3285084 -5.2396426 -0.053046174
4.6331434 -5.2620554 -0.087423481
4.8879375 -5.2492266 -0.081405163
5.1777506 -5.2924757 -0.082453385
5.4685726 -5.2052631 -0.053507227
5.6833286 -5.1597338 -0.092837162
6.1527758 -5.2399378 -0.10049404
6.4564319 -5.2402434 -0.11912401
6.9012785 -5.2755494 -0.10400883
7.1630144 -5.1623788 -0.095640101
9.1909437 -6.2009702 -0.1017506
9.2128706 -5.8269906 -0.11331978
9.1670504 -5.4663515 -0.12215848
9.1838923 -5.1156421 -0.097623654
9.6693106 -5.0711665 -0.09263806
10.38814 -5.005517 -0.14627378
11.12112 -5.0552936 -0.14342432
12.173124 -5.105968 -0.15659367
13.190901 -5.0872221 -0.13392974
30.935621 -10.900719 -0.36485106
30.827429 -9.9272776 -0.3788448
30.863297 -8.9954729 -0.33841011
30.933144 -8.0490856 -0.35280746
34.033932 -7.8504782 -0.35273165
34.033401 -6.833005 -0.35707429
38.902054 -6.6741199 -0.44740564
14.240151 -2.0751722 -0.15959811
8.780179 -1.0172168 -0.11359513
8.8150692 -0.731938 -0.10313337
8.7892151 -0.5043394 -0.10187492
8.7837582 -0.22094229 -0.094263449
8.793066 -0.028702479 -0.11488459
8.785696 0.29407886 -0.10226931
8.6005621 0.53110498 -0.10219365
8.624918 0.71813744 -0.11996202
8.6444302 0.95767534 -0.069507249
8.5804634 1.2429893 -0.090721205
8.612977 1.4828236 -0.091981441
8.6798086 1.7297848 -0.063847788
8.657979 1.9744936 -0.12116447
8.6153612 2.2413502 -0.12756199
8.650095 2.4911349 -0.10300564
8.6310101 2.7672067 -0.11298516
8.6574135 3.0800116 -0.07924784
8.6150913 3.301687 -0.11780754
8.653285 3.6174664 -0.074833728
8.6371479 3.8889861 -0.082123749
8.6281776 4.1685066 -0.074473068
8.5626984 4.470788 -0.11344279
8.7173405 4.8290863 -0.094508104
12.146708 7.2000237 -0.13999251
8.7871561 5.5736504 -0.10287049
8.7220898 5.8921528 -0.12742352
8.2590036 5.9511395 -0.11778666
7.9734225 6.0557728 -0.12502955
7.5311017 6.0894685 -0.10052031
6.7933631 5.7666841 -0.10477065
6.6988215 6.0627284 -0.1010532
6.6791906 6.4251437 -0.13959894
6.7164235 6.7645602 -0.10159566
6.7097454 7.209074 -0.12011664
6.5327501 7.3882456 -0.097013608
6.510159 7.8539004 -0.091850162
6.5245795 8.3148937 -0.14365666
6.5406613 8.8758392 -0.087799974
6.5438862 9.3751678 -0.13052754
6.5729785 9.9509001 -0.15234494
6.5313654 10.552081 -0.14084592
6.503871 11.292596 -0.17349695
6.290906 11.590173 -0.15347399
5.8305378 11.581012 -0.14375074
5.8072667 12.432945 -0.11229229
5.841373 13.316159 -0.17022386
5.783638 14.42382 -0.18160757
5.7853212 15.636788 -0.17009233
15.707997 46.411053 -0.52244842
14.389255 46.8367 -0.52244842
13.059002 47.224884 -0.52244842
11.718305 47.575291 -0.52244842
10.368234 47.887646 -0.52244842
9.0098696 48.161701 -0.52244842
8.3279161 48.28429 -0.52244842
9.0094595 -48.159508 -0.70106494
10.367762 -47.885468 -0.70106494
11.717771 -47.573128 -0.70106494
13.058408 -47.222733 -0.70106494
14.388599 -46.834568 -0.70106494
3.9694419 -11.705876 -0.14590374
3.7668598 -10.162889 -0.13553905
3.8032484 -9.4220982 -0.14905433
3.8032072 -8.7428865 -0.14542751
3.8175948 -8.0947676 -0.12527652
3.7483392 -7.5088758 -0.11095112
3.7715523 -6.9971671 -0.095289834
3.7667282 -6.483901 -0.13917129
3.8426785 -6.290031 -0.099546842
3.8496125 -5.8944569 -0.12242793
3.8619037 -5.5668426 -0.1253303
3.8562365 -5.2027388 -0.081362039
4.0838037 -5.1806893 -0.091744922
4.4029937 -5.2606206 -0.07659404
4.6384878 -5.2839665 -0.11067959
4.9183359 -5.2864394 -0.071208522
5.1772881 -5.2288709 -0.1072844
5.4650655 -5.2175074 -0.11490899
5.695734 -5.1749983 -0.11379948
6.1151562 -5.2705355 -0.11788934
6.4904623 -5.2334952 -0.10677812
6.9183693 -5.2128396 -0.12066109
7.1269193 -5.1342287 -0.12937506
9.172801 -6.212389 -0.1401014
9.2013311 -5.8573699 -0.14109783
9.2135477 -5.4873319 -0.19260682
9.1913967 -5.1361599 -0.14114137
9.6730404 -5.0192323 -0.16378535
10.542869 -5.1353159 -0.16041446
11.328678 -5.1090617 -0.19799608
12.212439 -5.0712037 -0.16684724
13.212369 -5.1106396 -0.18788299
30.933605 -10.92078 -0.48808983
30.877304 -9.9392776 -0.4610019
30.891823 -8.9821196 -0.49254122
30.912443 -8.0270481 -0.49413848
30.85112 -7.1161351 -0.44544694
34.076778 -6.8676181 -0.47275788
38.89748 -6.6948724 -0.55976403
14.218109 -2.0705485 -0.21209055
8.789072 -0.96690649 -0.14664823
10.429667 -0.87238431 -0.1110672
14.217235 -0.78948808 -0.20864524
14.221524 -0.42944968 -0.19800282
14.210083 -0.017908907 -0.22525832
8.7913141 0.21993539 -0.11737626
8.7541122 0.53127337 -0.11815844
9.8757858 0.84961182 -0.14638942
9.8259745 1.0967841 -0.13292779
9.9533176 1.404556 -0.12321538
8.7968521 1.5242931 -0.12656188
8.6680698 1.7486566 -0.10717854
8.6469536 2.0338423 -0.12988608
8.6367102 2.2420704 -0.1128253
8.6498299 2.4924328 -0.12696274
8.652914 2.7604506 -0.14094076
8.6241665 3.0557976 -0.087367848
8.6425524 3.3250673 -0.14516118
8.6634912 3.6050036 -0.13581596
8.6805735 3.8941054 -0.14811827
8.625433 4.2271972 -0.15914989
8.5800543 4.4907985 -0.12660885
10.343327 5.7372327 -0.14243047
12.100534 7.1940889 -0.20665978
8.8412342 5.6100979 -0.1273651
11.023273 7.4528775 -0.155727
8.2894049 5.9163384 -0.14140749
9.7721634 7.4254832 -0.19635728
7.4932151 6.0724907 -0.15786393
6.7732587 5.8218694 -0.13719055
6.6730237 6.0297036 -0.09522184
6.6867037 6.4035101 -0.14927231
6.7056112 6.7988305 -0.1384981
6.6932225 7.1567001 -0.13588013
6.5365605 7.3942208 -0.19654652
6.4723387 7.8420644 -0.14429356
6.4755206 8.2707577 -0.16280939
6.5659328 8.8780937 -0.17055635
6.5457439 9.4001675 -0.1210047
6.5312705 9.9475422 -0.16659774
6.5278187 10.605865 -0.22269897
6.5245395 11.310654 -0.19242328
6.2975664 11.608181 -0.1776811
5.8575797 11.590441 -0.18330359
5.8542562 12.382713 -0.20745862
5.7966237 13.299618 -0.20664884
5.8258891 14.424108 -0.23008779
5.8174887 15.640079 -0.24506401
15.707283 46.408939 -0.70106494
14.388599 46.834568 -0.70106494
13.058408 47.222733 -0.70106494
11.717771 47.573128 -0.70106494
10.367762 47.885468 -0.70106494
9.0094595 48.159508 -0.70106494
8.3275375 48.282093 -0.70106494
9.0089293 -48.156673 -0.87967217
10.367152 -47.882652 -0.87967217
11.717082 -47.570328 -0.87967217
13.05764 -47.219955 -0.87967217
14.387753 -46.831814 -0.87967217
3.9455678 -11.690485 -0.20447965
3.7571642 -10.16221 -0.1649581
3.7813902 -9.4428873 -0.16498826
3.7888937 -8.7583437 -0.16232608
3.8043375 -8.0636568 -0.15079081
3.8138108 -7.5355554 -0.18601266
3.7789443 -7.0311971 -0.13834427
3.7488813 -6.5247674 -0.099167094
3.8290145 -6.2696729 -0.14303619
3.8533618 -5.893847 -0.12184179
3.8553145 -5.5208511 -0.14350224
3.8538353 -5.1674409 -0.14042479
4.0484037 -5.178071 -0.15280919
4.384685 -5.25419 -0.11791668
4.6402202 -5.288693 -0.10616276
4.8975 -5.2638955 -0.12821557
5.1747761 -5.268054 -0.1431984
5.4271317 -5.2304306 -0.15450279
5.6709385 -5.1773062 -0.11780786
6.1128607 -5.2177877 -0.1185006
6.5155644 -5.249754 -0.12473774
6.8931942 -5.220675 -0.18592808
7.1622162 -5.1363935 -0.15616599
9.2583017 -6.2510319 -0.18517758
9.3076191 -5.9169726 -0.18400238
9.2154016 -5.4773707 -0.20380072
9.1668348 -5.1193895 -0.18569824
9.8976507 -5.0987792 -0.18385652
10.586316 -5.0987816 -0.24941029
11.334832 -5.0879469 -0.22654369
12.214836 -5.0801215 -0.24067764
13.197847 -5.06112 -0.23810001
30.936556 -10.900732 -0.60966408
30.904856 -9.9272785 -0.59270674
30.88402 -8.9860525 -0.55347586
30.938686 -8.0534973 -0.57969898
34.087948 -7.8504066 -0.60759485
34.06778 -6.8415999 -0.61113209
38.899368 -6.6832695 -0.68505782
14.217155 -2.0120084 -0.24589436
8.8122625 -0.98108774 -0.16624662
10.444169 -0.91027814 -0.15230978
14.219335 -0.81200153 -0.2347936
14.229705 -0.43679401 -0.26149365
14.223738 -0.0028406051 -0.24236324
8.7898102 0.27082318 -0.15453678
9.9850531 0.55356246 -0.14340231
9.8094378 0.88345367 -0.14070366
9.8382273 1.1268433 -0.14282741
9.9288635 1.3883082 -0.19663964
8.8165903 1.5000439 -0.16263017
8.6654711 1.7627929 -0.12382276
8.6308832 1.9592245 -0.1543728
8.6800947 2.2730482 -0.14240532
8.6259604 2.5042377 -0.15519205
8.6067333 2.7799969 -0.14325647
8.6562939 3.0771911 -0.14733395
8.6271315 3.3182302 -0.1759057
8.5887289 3.6077914 -0.15541679
8.6164465 3.9195969 -0.16434711
8.6044064 4.1630249 -0.16058256
8.5588732 4.4366517 -0.15029268
10.319295 5.785778 -0.24882846
12.117109 7.2117081 -0.25393218
8.8616858 5.6204638 -0.21889366
11.054832 7.4405079 -0.23964101
8.2847252 5.9618573 -0.18833655
9.7847233 7.4177957 -0.23184042
9.2159405 7.4162765 -0.20685686
6.760819 5.8167243 -0.17415656
6.7271514 6.0911918 -0.17749408
7.875205 7.5112042 -0.20299974
7.7354608 7.8561382 -0.20174453
6.7146721 7.1640124 -0.18635845
7.5013824 8.4922667 -0.18667433
7.0216126 8.4851112 -0.23452941
6.6678138 8.4767523 -0.19551538
6.5528708 8.8439169 -0.23142378
6.5283437 9.3965588 -0.1920087
6.5585527 9.9674873 -0.24725373
6.5159554 10.609296 -0.23892555
6.519824 11.306863 -0.23164259
6.2689314 11.595013 -0.24291357
5.8384004 11.558713 -0.26915181
5.7917075 12.399347 -0.24275459
5.8484712 13.36706 -0.24372044
5.8151274 14.383972 -0.30473903
5.8194013 15.624169 -0.3226651
15.706359 46.406212 -0.87967217
14.387753 46.831814 -0.87967217
13.05764 47.219955 -0.87967217
11.717082 47.570328 -0.87967217
10.367152 47.882652 -0.87967217
9.0089293 48.156673 -0.87967217
8.3270473 48.279255 -0.87967217
9.0082798 -48.153202 -1.0582677
10.366405 -47.8792 -1.0582677
11.716237 -47.566898 -1.0582677
13.056699 -47.216553 -1.0582677
14.386716 -46.828438 -1.0582677
4.0870528 -11.96388 -0.26126841
3.8157482 -10.20811 -0.24116096
3.8006561 -9.4308186 -0.22644083
3.7979779 -8.7506685 -0.20991722
3.7859044 -8.0606346 -0.19837584
3.7659719 -7.519484 -0.18596682
3.787173 -6.9798646 -0.14900672
3.771657 -6.4967594 -0.15088011
3.8680105 -6.2411776 -0.14804344
3.86889 -5.8979897 -0.15412176
3.8790863 -5.5182185 -0.12242129
3.8472576 -5.1886463 -0.088737808
4.0966253 -5.1909895 -0.13675483
4.3725076 -5.2542405 -0.11871295
4.6212034 -5.2817912 -0.13009036
4.9289012 -5.2514315 -0.19174957
5.2025208 -5.2634106 -0.164524
5.4462829 -5.1999154 -0.14829464
5.705811 -5.1534057 -0.13310434
6.1659532 -5.265954 -0.15613994
7.7031136 -6.2338834 -0.21431997
6.9496903 -5.3387752 -0.20358418
7.1871648 -5.1463218 -0.2065877
9.2478752 -6.2601328 -0.26868266
9.267005 -5.8819509 -0.22881955
9.2962961 -5.5501542 -0.24867375
9.2851801 -5.16819 -0.2348385
9.8584375 -5.1474233 -0.24299142
10.542487 -5.1140833 -0.25199512
11.313524 -5.1106048 -0.2984623
12.216116 -5.0934916 -0.28308544
13.221524 -5.0685997 -0.27024683
30.96813 -10.93003 -0.70379478
30.894888 -9.9266062 -0.69755429
30.903858 -8.9736156 -0.66473454
30.959143 -8.0452738 -0.67139322
34.108501 -7.8088684 -0.75362879
33.998386 -6.8379087 -0.73656195
38.880554 -6.690804 -0.8683117
14.274503 -2.0419898 -0.32425833
8.8384943 -1.0108752 -0.23508063
10.446063 -0.90400738 -0.26234925
14.243799 -0.79544288 -0.30170029
14.213152 -0.41236332 -0.29819766
14.252101 0.01829524 -0.32020009
8.8192196 0.26362842 -0.19239146
9.9856386 0.53122717 -0.2134877
9.8113441 0.8450352 -0.19001111
9.845335 1.1076354 -0.2071602
9.930316 1.4206127 -0.20301847
8.771121 1.535421 -0.16689241
8.6868305 1.7762153 -0.17015938
8.6576862 2.0219104 -0.15026163
8.6890192 2.2508781 -0.16881581
8.6258202 2.4891288 -0.19734968
8.6702747 2.7794201 -0.22286139
8.6420536 3.0904462 -0.18503837
8.6659689 3.3443296 -0.14125286
8.6266251 3.6330628 -0.18228966
8.705636 3.8995891 -0.23797081
8.7037754 4.2509928 -0.21271886
8.5567951 4.4971089 -0.23014976
10.326007 5.7651162 -0.23577441
9.6561737 5.7953691 -0.25150529
8.8465071 5.6331801 -0.27213061
11.033843 7.4485068 -0.26586547
8.3266382 5.9657164 -0.23081027
9.7599449 7.4261794 -0.25815761
9.1824617 7.3965354 -0.29579839
6.782681 5.8174915 -0.16763106
6.6954737 6.0385952 -0.20080359
7.849751 7.5144219 -0.23717389
7.7347155 7.83006 -0.22763619
6.7247238 7.1900167 -0.20259494
7.5502968 8.5905809 -0.25819427
7.0699472 8.5064631 -0.24692754
6.6555271 8.4834299 -0.20950167
6.6209593 8.8828039 -0.23471008
6.5493884 9.4127502 -0.21781376
6.5061011 9.9843082 -0.23353134
6.5769286 10.590855 -0.23175253
6.6187816 11.473534 -0.29211587
6.2611294 11.571888 -0.26708472
5.8465285 11.583823 -0.31004044
5.8246508 12.408435 -0.27672994
5.8278961 13.359111 -0.2958484
5.7999749 14.395111 -0.31313261
5.7778091 15.615736 -0.36169437
15.705227 46.402866 -1.0582677
14.386716 46.828438 -1.0582677
13.056699 47.216553 -1.0582677
11.716237 47.566898 -1.0582677
10.366405 47.8792 -1.0582677
9.0082798 48.153202 -1.0582677
8.3264475 48.275772 -1.0582677
9.0075102 -48.14909 -1.2368491
10.36552 -47.875111 -1.2368491
11.715237 -47.562836 -1.2368491
13.055584 -47.212521 -1.2368491
14.385488 -46.824436 -1.2368491
4.0498624 -11.928802 -0.2940492
3.9330006 -10.615824 -0.28964236
3.8237031 -9.5029087 -0.2696549
3.8070898 -8.7603827 -0.29131791
3.8064532 -8.0748301 -0.23254748
3.8375525 -7.503655 -0.24610643
3.7912083 -7.0077868 -0.21748999
3.7472582 -6.4432044 -0.18377571
3.8620279 -6.2772593 -0.21230623
3.8524015 -5.8844275 -0.17419191
3.8755932 -5.5188322 -0.20010944
3.8329723 -5.1713953 -0.1424427
4.078105 -5.172965 -0.15215184
4.4008818 -5.3032036 -0.14619312
4.641736 -5.2550888 -0.19106056
4.8749523 -5.2727799 -0.1830992
5.1898594 -5.2706227 -0.19492526
5.4435039 -5.181015 -0.22026603
5.6945648 -5.1798134 -0.19863366
7.1784344 -6.1586242 -0.20939538
7.770998 -6.2962971 -0.25231433
7.0047698 -5.3424783 -0.21438836
7.2313275 -5.1198568 -0.20428412
9.2364817 -6.280601 -0.2923474
9.2808542 -5.8677988 -0.2670106
9.2482939 -5.5110669 -0.2624782
9.2648716 -5.1901345 -0.26873383
9.8315191 -5.1445675 -0.29114735
10.518141 -5.1197839 -0.30809307
11.359672 -5.1221128 -0.33910117
12.246725 -5.0962052 -0.33600655
13.190019 -5.0816112 -0.34914821
30.951994 -10.945396 -0.80568677
30.904688 -9.922821 -0.84844851
30.897844 -8.9448242 -0.78958166
30.98958 -8.0618906 -0.81455195
34.092648 -7.8267078 -0.89748776
34.080296 -6.8262577 -0.88590544
38.89275 -6.6372271 -1.01438
14.268023 -2.0433624 -0.35787126
8.8532505 -0.99743307 -0.2489378
10.440156 -0.89890486 -0.25260878
14.211924 -0.80610836 -0.35773146
14.203657 -0.42756253 -0.34299752
14.225869 0.0025147749 -0.36451033
8.8310585 0.24853766 -0.2169414
9.9803038 0.56614482 -0.26163593
9.8760376 0.83439392 -0.24877994
9.8628521 1.1161464 -0.23707196
9.9232388 1.4049444 -0.27273118
9.2151051 1.5780847 -0.21069723
8.7502594 1.7623034 -0.2203113
8.7315941 1.9951305 -0.22564967
8.7196455 2.3200862 -0.1949544
8.7185097 2.5413358 -0.237268
8.7082481 2.8168783 -0.24455053
8.7418995 3.0912426 -0.24525914
8.7354002 3.3592918 -0.25687623
8.7288046 3.6406255 -0.24986266
8.7618132 3.9296603 -0.24491191
8.7157297 4.2312078 -0.22162974
8.5278463 4.4506621 -0.22753443
10.375873 5.7652378 -0.2882348
9.6867971 5.7793956 -0.29011911
8.8264256 5.6013131 -0.2816526
11.012589 7.3981638 -0.32247508
8.3599701 6.0042319 -0.23872811
9.757103 7.4468498 -0.26550767
9.2149 7.4188938 -0.31341198
6.8317704 5.8340893 -0.24061985
6.7317042 6.1028934 -0.19413154
7.8366437 7.534121 -0.29716748
7.7689972 7.8570065 -0.2943508
6.6961069 7.1996593 -0.21991386
7.4974823 8.5610638 -0.28496137
7.1296091 8.5577517 -0.28814393
6.7018313 8.5312757 -0.27613661
6.6927199 8.9715929 -0.30873612
6.6410961 9.4984617 -0.28875512
6.6281371 10.085917 -0.33057204
6.639359 10.746932 -0.31783834
6.6125803 11.419581 -0.30681029
6.2818222 11.602573 -0.31120607
5.8463969 11.610186 -0.29718673
5.84483 12.435875 -0.32136399
5.832037 13.376075 -0.43643886
5.7877474 14.431304 -0.40882048
5.8167019 15.646822 -0.40595651
15.703885 46.398903 -1.2368491
14.385488 46.824436 -1.2368491
13.055584 47.212521 -1.2368491
11.715237 47.562836 -1.2368491
10.36552 47.875111 -1.2368491
9.0075102 48.14909 -1.2368491
8.325736 48.271652 -1.2368491
9.0066214 -48.144341 -1.4154141
10.364496 -47.870384 -1.4154141
11.714081 -47.558144 -1.4154141
13.054295 -47.207859 -1.4154141
14.384068 -46.819817 -1.4154141
4.0519719 -12.006744 -0.39289594
3.9271512 -10.658624 -0.34238923
3.8098934 -9.4946251 -0.30968603
3.815037 -8.722043 -0.23719357
3.8302994 -8.0976429 -0.26998085
3.7788088 -7.522315 -0.22454156
3.7786655 -6.9979863 -0.22881514
3.7649412 -6.4606695 -0.18428195
3.8406706 -6.253263 -0.22517499
3.854419 -5.9078393 -0.18588829
3.879199 -5.5369244 -0.20493369
3.8488543 -5.2094097 -0.19435422
4.0792284 -5.1842613 -0.21375768
4.3922305 -5.2911077 -0.175577
4.6460581 -5.3011622 -0.19969009
4.8948293 -5.2928128 -0.20546664
6.2840171 -6.3369274 -0.25225455
5.4074903 -5.2488956 -0.22206512
5.6760197 -5.1584821 -0.24384062
7.2324457 -6.18225 -0.26182288
7.7869334 -6.2674809 -0.31121558
7.0154963 -5.3316007 -0.27064526
7.2281141 -5.2145658 -0.22936998
9.3036337 -6.2745275 -0.31746385
9.2744036 -5.8911133 -0.28527433
9.2586927 -5.5221791 -0.3285152
9.2981482 -5.1728535 -0.35052454
9.8169146 -5.1161337 -0.33490613
10.503314 -5.1282253 -0.35702384
11.324418 -5.0779753 -0.35741451
12.221612 -5.1311078 -0.40098211
13.239227 -5.0426064 -0.38374317
30.972683 -10.895009 -0.94885647
30.89027 -9.9442806 -0.9425441
30.893095 -9.0000067 -0.92418903
30.960529 -8.0534039 -0.90275115
34.098206 -7.8932095 -1.009601
34.066517 -6.8277063 -0.98612297
38.870342 -6.63691 -1.1548114
14.2028 -2.0650988 -0.39250171
8.8317308 -1.0061116 -0.24434645
8.9469805 -0.77900428 -0.2616975
8.9316273 -0.52310693 -0.28446001
8.8905935 -0.2566911 -0.27839258
8.9330158 0.0011639924 -0.25736934
8.8287935 0.23592559 -0.24102159
9.9545097 0.55588526 -0.31725776
9.8518171 0.83446157 -0.24884783
9.8957529 1.1253822 -0.28152177
9.9401817 1.4010007 -0.26551521
9.2137032 1.5974722 -0.26816922
8.7417393 1.7684391 -0.28160143
8.7409286 1.9922975 -0.23104765
8.7299719 2.2546608 -0.27106449
8.7408752 2.5040042 -0.28928265
8.7338018 2.7857878 -0.25419572
8.6864452 3.0600762 -0.2561827
8.7109222 3.3375993 -0.22977138
8.6934481 3.6264379 -0.23812728
8.7147999 3.9230084 -0.30983096
8.747509 4.2337928 -0.30053857
8.5461817 4.4519281 -0.27266425
8.8691397 4.9239736 -0.27964291
8.8128624 5.2887602 -0.26623553
8.8635864 5.6675324 -0.33332598
11.018643 7.4493585 -0.39537561
8.2847395 5.9555063 -0.32592666
9.7398424 7.4311485 -0.32792798
9.1869507 7.4425011 -0.3817125
6.8594794 5.8615174 -0.29670569
8.1275635 7.3968096 -0.31898692
7.8560228 7.5222168 -0.29591104
7.7753839 7.8162255 -0.32321909
6.7681446 7.2125931 -0.2957983
7.5261459 8.5567303 -0.34569356
7.1267676 8.5338564 -0.31675714
6.7117844 8.5469646 -0.34222445
6.6255159 8.9976177 -0.33608338
6.6368055 9.4835863 -0.32551205
6.6326985 10.105242 -0.35764378
6.5994601 10.716727 -0.41023201
6.6168776 11.429725 -0.37196866
6.2586708 11.614673 -0.39218253
5.8344641 11.635768 -0.35998341
5.868443 12.395411 -0.39214489
5.8163662 13.31831 -0.43359491
5.8086166 14.416622 -0.43485174
5.8219571 15.629916 -0.48288426
15.702335 46.394325 -1.4154141
14.384068 46.819817 -1.4154141
13.054295 47.207859 -1.4154141
11.714081 47.558144 -1.4154141
10.364496 47.870384 -1.4154141
9.0066214 48.144341 -1.4154141
8.3249149 48.266888 -1.4154141
9.0056133 -48.138947 -1.5939603
10.363336 -47.865025 -1.5939603
11.712769 -47.552814 -1.5939603
13.052833 -47.202572 -1.5939603
14.382457 -46.814571 -1.5939603
4.0762849 -11.976322 -0.37483534
3.9463756 -10.729627 -0.38214454
3.8068399 -9.4750624 -0.35636845
3.8187919 -8.7275858 -0.30212596
3.7866254 -8.0833206 -0.27619386
3.7829278 -7.5217581 -0.24834441
3.796351 -7.0067759 -0.28960356
3.7639484 -6.5170212 -0.26111963
3.8511748 -6.2911487 -0.26552415
3.8855906 -5.9132538 -0.18610564
3.8731782 -5.5405436 -0.20672461
3.8511176 -5.2043939 -0.20508455
4.0837655 -5.1523004 -0.21076974
4.3831348 -5.2624335 -0.23224725
5.612752 -6.394043 -0.30310443
5.9277329 -6.3863711 -0.29733685
6.2812886 -6.352716 -0.28298292
5.4449492 -5.2372589 -0.24183682
5.6869054 -5.191885 -0.25004002
7.192543 -6.190187 -0.34259969
7.8150616 -6.2936506 -0.34718415
7.020927 -5.330092 -0.30197743
7.2358789 -5.1522288 -0.28821513
9.2580976 -6.2393227 -0.37881494
9.2809296 -5.8902254 -0.32773629
9.275116 -5.5175362 -0.32456586
9.2708387 -5.2045741 -0.32654917
9.8332253 -5.1035385 -0.36945009
10.541183 -5.1270046 -0.35103527
11.334908 -5.0767679 -0.35308668
12.190401 -5.0914364 -0.44434315
13.163766 -5.1016793 -0.42666063
30.937407 -10.961061 -1.0647476
30.91456 -9.9592505 -1.039906
30.93046 -9.0035648 -1.0343448
30.997185 -8.0698032 -1.0437663
34.063019 -7.8614998 -1.1276072
34.1054 -6.8234763 -1.0974677
38.894127 -6.6441603 -1.2863175
14.244989 -2.0398717 -0.46229196
8.8348236 -1.0321014 -0.31270257
8.9379616 -0.74925709 -0.27014408
8.938859 -0.52090704 -0.29321319
8.9272919 -0.23677562 -0.27670199
8.9519005 -0.012559715 -0.30593485
8.8166237 0.26918468 -0.27445567
9.917695 0.59675503 -0.34500039
9.900424 0.76831883 -0.31638956
9.8459587 1.1135604 -0.27765617
9.9326105 1.3574396 -0.30333954
9.2295303 1.578879 -0.30141288
8.7846241 1.7794001 -0.27564991
8.7304039 1.9948251 -0.31815931
8.7268467 2.2951367 -0.3167997
8.7453651 2.5208266 -0.34256473
8.7090225 2.8182011 -0.27713144
8.7087259 3.0753782 -0.2961345
8.7115259 3.3773184 -0.30079049
8.7134562 3.6890893 -0.30777925
8.7162971 3.9463837 -0.34778398
8.7209587 4.2414799 -0.27170432
8.5659065 4.4555488 -0.34420344
8.8659496 4.9810405 -0.33959207
8.8759079 5.2739797 -0.35844478
8.8390388 5.584434 -0.37030378
11.034682 7.451951 -0.41164449
8.3062601 5.9476757 -0.34582248
7.7988563 5.9622669 -0.31376034
7.3467464 5.9359241 -0.30594403
6.8504047 5.8578835 -0.26754493
8.2213326 7.3962951 -0.36221969
7.8392396 7.5278058 -0.36676678
7.7616782 7.8619332 -0.30432329
6.7384181 7.2109642 -0.36632219
7.5526834 8.5635195 -0.37304398
7.124145 8.5733194 -0.38227445
6.7243185 8.534811 -0.36307615
6.6434269 8.9900713 -0.35731578
6.6856656 9.4817028 -0.37537369
6.6068578 10.127642 -0.39395991
6.6130381 10.76565 -0.40185648
6.6533747 11.461992 -0.46245971
6.2884421 11.599826 -0.42781135
5.8767047 11.593704 -0.42186567
5.82864 12.424508 -0.42751798
5.82059 13.369925 -0.51524961
5.8110037 14.457406 -0.51522708
5.7970867 15.634267 -0.48954442
15.700577 46.38913 -1.5939603
14.382457 46.814571 -1.5939603
13.052833 47.202572 -1.5939603
11.712769 47.552814 -1.5939603
10.363336 47.865025 -1.5939603
9.0056133 48.138947 -1.5939603
8.3239822 48.261482 -1.5939603
9.0044842 -48.132915 -1.7724854
10.362037 -47.859028 -1.7724854
11.711301 -47.54686 -1.7724854
13.051198 -47.196659 -1.7724854
14.380655 -46.808708 -1.7724854
4.0642219 -11.954072 -0.45597032
4.0468674 -10.762221 -0.41454512
4.9001217 -12.085286 -0.44483104
3.8040895 -8.7739048 -0.35002363
3.8372927 -8.0622826 -0.3477
3.8090601 -7.501255 -0.27995765
3.7532861 -6.9909859 -0.28055727
3.7782292 -6.502809 -0.27034998
3.8666058 -6.2525716 -0.28567943
4.0847197 -6.1816173 -0.27014443
3.8688242 -5.5780621 -0.21379419
3.841284 -5.2062974 -0.2411534
4.1074953 -5.1725478 -0.20969839
5.2971811 -6.380033 -0.31021643
5.6325679 -6.4000702 -0.30285361
5.9667554 -6.3805108 -0.34500808
6.2683058 -6.3685446 -0.33721468
5.4636302 -5.269855 -0.25877595
7.0419693 -6.3777819 -0.29363811
7.1966429 -6.1306562 -0.33457518
7.7968173 -6.2672858 -0.39082721
7.0234799 -5.3631907 -0.30622026
7.1897583 -5.1754365 -0.30985928
9.2476406 -6.2620959 -0.39477831
9.2556419 -5.9340916 -0.40052968
9.2754259 -5.5069418 -0.35547259
9.2656755 -5.1852407 -0.3622466
9.8271456 -5.132441 -0.38975945
10.520597 -5.1221805 -0.39211679
11.348192 -5.1259127 -0.45451871
12.198018 -5.0985355 -0.4612802
13.205096 -5.0799046 -0.52367741
30.913332 -10.939147 -1.1705326
30.949156 -9.9277096 -1.1978154
30.919775 -8.9836388 -1.156517
30.986437 -8.0517025 -1.164075
34.093113 -7.8596654 -1.2469196
34.103073 -6.8361921 -1.2255126
38.88662 -6.6561451 -1.449266
14.245622 -2.0089147 -0.53976297
8.8217268 -1.0129668 -0.31891242
8.9054718 -0.7949996 -0.34905231
8.9457102 -0.53555453 -0.34622636
8.9311819 -0.22637664 -0.31615409
8.9226189 0.014770685 -0.32657322
8.799161 0.21663199 -0.31705907
9.9797649 0.52949989 -0.3562839
9.8365564 0.81489366 -0.35093257
9.8864403 1.0963153 -0.37092727
9.9293194 1.4094735 -0.38258427
9.2033501 1.6104121 -0.34407902
8.7137365 1.7492098 -0.32103378
8.7515545 2.0354662 -0.35686737
8.7421083 2.2634947 -0.32824191
8.7389812 2.5479586 -0.31902745
8.7439833 2.8259914 -0.34945124
8.6965399 3.074146 -0.28544778
8.7258797 3.3945696 -0.34412774
8.7035637 3.6424513 -0.34713611
8.7284117 3.9395394 -0.32534081
8.7278709 4.224628 -0.35453698
8.5353489 4.4784002 -0.3573758
8.9062719 4.9483452 -0.35073182
8.8479061 5.2895889 -0.38889083
8.8328295 5.602529 -0.38167298
11.012032 7.4486094 -0.44849974
8.3086596 5.9508157 -0.33097908
7.799952 5.9925437 -0.36476782
7.3723698 5.9837885 -0.33815953
6.830327 5.8622289 -0.30662796
6.8645186 6.1715741 -0.34223574
6.8350782 6.5626044 -0.36317942
6.8463049 6.8967204 -0.36052796
6.6909847 7.1946235 -0.38027507
7.5286155 8.5477848 -0.40866661
7.1091971 8.5426054 -0.41040012
6.6910381 8.5306005 -0.3969599
6.618433 8.9540138 -0.37350503
6.6476893 9.5244236 -0.43778506
6.632978 10.083991 -0.446188
6.5827379 10.767726 -0.49027222
6.5932488 11.434848 -0.49446627
6.2566962 11.606126 -0.44719696
5.854785 11.618609 -0.49681264
5.8269458 12.454042 -0.44572768
5.8160276 13.371187 -0.53826541
5.8113022 14.433635 -0.56461585
5.809443 15.628634 -0.640683
15.698609 46.383316 -1.7724854
14.380655 46.808708 -1.7724854
13.051198 47.196659 -1.7724854
11.711301 47.54686 -1.7724854
10.362037 47.859028 -1.7724854
9.0044842 48.132915 -1.7724854
8.3229389 48.255436 -1.7724854
9.0032368 -48.126244 -1.9509867
10.3606 -47.852394 -1.9509867
11.709678 -47.540268 -1.9509867
13.049389 -47.190117 -1.9509867
14.378662 -46.802219 -1.9509867
4.0731115 -11.993334 -0.47800961
3.989754 -10.776567 -0.45116234
4.8673296 -12.094382 -0.49407876
3.9016464 -8.8851986 -0.40173718
3.9119675 -8.2671366 -0.39121735
3.7975984 -7.4993286 -0.3152163
3.7869213 -7.0001612 -0.32453927
3.7625499 -6.5052676 -0.31824937
3.8954031 -6.3007417 -0.27249992
4.0829935 -6.2195539 -0.2873894
4.4908109 -6.4461784 -0.30596399
3.8410475 -5.182796 -0.28049472
4.0376949 -5.1712956 -0.24919684
5.2984648 -6.3950486 -0.32262215
5.6409187 -6.393209 -0.37842169
5.9187517 -6.4124722 -0.34347844
6.2792025 -6.3656068 -0.3513881
5.4705901 -5.2363787 -0.28185597
7.081214 -6.400847 -0.41092452
7.1658654 -6.1296692 -0.39146766
6.5181704 -5.3101282 -0.3356148
6.9166932 -5.2956233 -0.34467614
7.2465949 -5.1806922 -0.33683458
9.2441454 -6.2429042 -0.45150781
9.2967024 -5.8798361 -0.44037619
9.2911263 -5.5503664 -0.43286374
9.2999477 -5.1543465 -0.42876121
9.8260851 -5.1518064 -0.44816485
10.530081 -5.112534 -0.45914856
11.259915 -5.0927615 -0.50693518
12.186959 -5.1042509 -0.54162318
13.161718 -5.0789433 -0.53911322
30.977129 -10.938756 -1.3083047
30.975079 -9.9382839 -1.2722334
30.956711 -8.9558105 -1.2727312
30.968012 -8.0500355 -1.2705927
33.237175 -7.6381459 -1.3735446
33.295212 -6.6858735 -1.339972
38.910721 -6.6467056 -1.5681537
14.221853 -2.0074775 -0.58777028
8.8432159 -0.99451339 -0.3733952
8.9427414 -0.77030289 -0.35707596
8.9071598 -0.47064963 -0.34228143
8.9533072 -0.25924793 -0.35552713
8.98598 -0.0089762295 -0.38133082
8.8322744 0.26186779 -0.35572225
9.921607 0.57971865 -0.38033548
9.8753576 0.84587377 -0.41456524
9.8350897 1.1407297 -0.3894369
9.9855404 1.3782175 -0.41571453
9.2058096 1.5429276 -0.38208306
8.7684832 1.7694722 -0.36863396
8.7615089 1.9967002 -0.34486529
8.7437344 2.2632549 -0.3879163
8.7427244 2.5304451 -0.3733443
8.7389326 2.7895994 -0.34548432
8.7357769 3.0780349 -0.40942234
8.7572889 3.3460996 -0.40120772
8.7039423 3.6493514 -0.38302228
8.7035122 3.9352357 -0.39360809
8.6990471 4.1974583 -0.39526606
8.5384235 4.4794316 -0.39328399
8.874012 4.970222 -0.39777711
8.8879385 5.2873917 -0.42040983
8.8506393 5.5967951 -0.4107424
11.041842 7.4338684 -0.54175973
8.309577 5.9411182 -0.42769271
7.8287902 5.9795613 -0.42844638
7.3571844 5.9272761 -0.36795112
6.8379169 5.8146906 -0.32909578
6.8043184 6.2029142 -0.35803398
6.8394513 6.5568423 -0.34057793
6.8535728 6.9407582 -0.39160404
6.7637758 7.1736999 -0.38748828
7.5003262 8.5411806 -0.46592191
7.1308618 8.5318489 -0.43393809
6.7142015 8.5158825 -0.42109877
6.6474676 8.9963026 -0.42861691
6.6568851 9.512907 -0.46118796
6.6279888 10.097813 -0.4958199
6.6038866 10.649508 -0.5064168
6.6238103 11.434117 -0.51272887
6.2786517 11.62513 -0.55166453
5.9066467 11.618344 -0.49881262
5.8751707 12.442863 -0.52319652
5.8299646 13.351979 -0.56816763
5.8238692 14.417662 -0.64222044
5.7967286 15.681069 -0.65359426
15.696434 46.376888 -1.9509867
14.378662 46.802219 -1.9509867
13.049389 47.190117 -1.9509867
11.709678 47.540268 -1.9509867
10.3606 47.852394 -1.9509867
9.0032368 48.126244 -1.9509867
8.3217859 48.248745 -1.9509867
9.0018692 -48.118935 -2.1294622
10.359027 -47.845123 -2.1294622
11.707899 -47.533047 -2.1294622
13.047406 -47.182949 -2.1294622
14.376477 -46.795109 -2.1294622
4.059514 -11.964185 -0.54978085
3.9761612 -10.787605 -0.48156491
4.8540759 -12.064222 -0.56241608
3.8971138 -8.9726114 -0.42300943
3.8778257 -8.2762556 -0.40606043
3.8790119 -7.7033467 -0.36314863
3.766367 -7.0160074 -0.36255747
3.7821407 -6.5013361 -0.32294166
3.9078107 -6.3308401 -0.33576426
4.1088772 -6.2173386 -0.31003159
4.5411463 -6.5132327 -0.35696498
3.8896148 -5.1956043 -0.24387553
4.0660214 -5.1806951 -0.27359009
5.3383284 -6.3810363 -0.35816517
5.5999699 -6.3764396 -0.35827047
6.0005169 -6.3687544 -0.38483804
6.2877622 -6.3638639 -0.4286969
5.4790931 -5.251101 -0.32863367
7.069921 -6.4185157 -0.40260583
6.2249746 -5.2762733 -0.3366836
6.5534549 -5.2836738 -0.40400597
6.934381 -5.2895851 -0.35898033
7.2024679 -5.1735029 -0.36621609
9.2153616 -6.2632604 -0.51510906
9.282444 -5.9077897 -0.48620671
9.2607002 -5.511652 -0.47474298
9.2467842 -5.179019 -0.43925035
9.8541756 -5.1062307 -0.47807348
10.541932 -5.0936575 -0.52202523
11.32529 -5.1257582 -0.54861969
12.211914 -5.1021624 -0.57505095
13.230472 -5.0637608 -0.65133959
30.970078 -10.920864 -1.4111038
30.921347 -9.9469252 -1.4207163
30.959484 -9.0078115 -1.3780717
30.991663 -8.0443707 -1.4159364
31.49222 -7.2765303 -1.3796363
32.575809 -6.5499372 -1.4271604
38.889744 -6.6476483 -1.6841609
14.238718 -1.9904859 -0.62351686
8.871376 -1.0079131 -0.35370389
8.9529533 -0.76649708 -0.40017483
8.9445324 -0.50478321 -0.39702904
8.922389 -0.26058948 -0.40422302
8.928112 -0.012343299 -0.3784532
8.8050184 0.29670611 -0.38566148
9.9305391 0.60118353 -0.4487609
9.8481741 0.79570168 -0.43811134
9.8423138 1.1309505 -0.4259851
9.9773331 1.4415224 -0.40177158
9.0756416 1.5713081 -0.3928
8.7391233 1.7486682 -0.41915801
8.7331972 2.0273108 -0.41775036
8.767272 2.2643204 -0.45045254
8.7151403 2.5642836 -0.37986445
8.7356348 2.8333764 -0.38105163
8.7513428 3.1054997 -0.38403508
8.7711411 3.3769739 -0.41424349
8.7198381 3.639173 -0.41132683
8.6550598 3.92717 -0.41187152
8.727623 4.24084 -0.45544058
8.563983 4.4879646 -0.40278906
8.8731852 4.9508595 -0.41212675
8.8648262 5.2883391 -0.47059715
8.8572407 5.6306944 -0.45888713
11.002109 7.4684534 -0.57924223
8.2691631 5.9555488 -0.45640922
7.8384027 5.9415007 -0.45592514
7.3567438 5.9310756 -0.39646837
6.8454552 5.8492193 -0.39435109
6.8766789 6.2036409 -0.39164948
6.8320069 6.5821614 -0.40142837
6.820148 6.9423685 -0.44990179
6.7187619 7.2096806 -0.46081182
7.5080938 8.531621 -0.47954616
7.0677724 8.5147314 -0.4699308
6.6892657 8.5656681 -0.47031054
6.6410112 8.9944868 -0.46476725
6.6098056 9.4602108 -0.55186707
6.6324439 10.132236 -0.51536393
6.6015182 10.645268 -0.50451249
6.5655971 11.430492 -0.57215267
6.2800007 11.591215 -0.54667437
5.859786 11.570646 -0.59101909
5.856215 12.400563 -0.56680888
5.8460159 13.359114 -0.67223692
5.7802291 14.432431 -0.67166156
5.7643905 15.607111 -0.69215888
15.69405 46.369843 -2.1294622
14.376477 46.795109 -2.1294622
13.047406 47.182949 -2.1294622
11.707899 47.533047 -2.1294622
10.359027 47.845123 -2.1294622
9.0018692 48.118935 -2.1294622
8.3205214 48.241417 -2.1294622
9.0003815 -48.110985 -2.3079095
10.357315 -47.837219 -2.3079095
11.705964 -47.525192 -2.3079095
13.045251 -47.175152 -2.3079095
14.374103 -46.787376 -2.3079095
4.0675139 -11.962866 -0.59256786
3.9637764 -10.732783 -0.54186696
4.8392458 -12.102659 -0.60590947
3.8841958 -8.9568882 -0.4582482
3.8753791 -8.2884111 -0.42297077
3.8870952 -7.6968708 -0.4429166
3.8464496 -7.1803226 -0.36303127
3.7306571 -6.4589486 -0.3229239
3.8938732 -6.3492436 -0.37137884
4.1012516 -6.2367616 -0.36622199
4.5684609 -6.5536709 -0.37510484
3.8413286 -5.262394 -0.33344921
4.0891461 -5.2116313 -0.30569312
5.3065534 -6.3836679 -0.39191422
5.6630473 -6.3688107 -0.40296268
5.9317017 -6.3587694 -0.37131852
6.290575 -6.3621264 -0.44769663
5.4770207 -5.2514243 -0.36953425
5.8743429 -5.3080082 -0.3444193
6.2066402 -5.2696147 -0.38389397
6.5399714 -5.2808518 -0.4074468
6.9531446 -5.3087544 -0.42903146
7.2484827 -5.1883764 -0.37335223
9.2610903 -6.2392054 -0.56136012
9.3000011 -5.8985882 -0.52448648
9.2893915 -5.542695 -0.48864514
9.2874041 -5.1559148 -0.46654165
9.8352785 -5.1299529 -0.51544738
10.547174 -5.1212997 -0.53523862
11.333907 -5.0967307 -0.58698958
12.213604 -5.1097736 -0.62295389
13.209884 -5.1062083 -0.65653145
31.015837 -10.933506 -1.5492772
30.977955 -9.938735 -1.5309937
30.935028 -8.9662266 -1.4992257
30.672796 -7.9912467 -1.4638101
30.653709 -7.0207314 -1.4873202
33.636246 -6.7534609 -1.6368943
39.228699 -6.7352667 -1.8519644
14.276017 -2.0430923 -0.67740744
8.8760281 -0.99905121 -0.4498809
8.9348583 -0.77648413 -0.46707347
8.9374838 -0.48198983 -0.42233697
8.9323492 -0.24754952 -0.43349585
8.9187231 0.0098013673 -0.46414542
8.831109 0.27543685 -0.43117529
9.9596157 0.58647299 -0.47056201
9.8655748 0.82919812 -0.47297379
9.8473549 1.1561881 -0.49887401
9.9297781 1.3734424 -0.46689433
8.9727602 1.5419511 -0.44981608
8.7290716 1.7913772 -0.41513318
8.6788759 1.9881936 -0.44248605
8.7006054 2.2921102 -0.42678979
8.6747122 2.5598006 -0.4293507
8.7235451 2.8006573 -0.40534288
8.7502441 3.0623655 -0.42234096
8.7382574 3.3496842 -0.40195408
8.6967316 3.6217661 -0.40827632
8.6960716 3.9400725 -0.40620795
8.7359896 4.260716 -0.46111432
8.5319786 4.4592004 -0.4335427
8.8741989 4.9630194 -0.44428486
8.8292599 5.2799821 -0.50614226
8.8693314 5.6421242 -0.49303627
11.018655 7.444479 -0.6533947
8.3237305 5.9537711 -0.49953035
7.8221321 5.9308805 -0.47747374
7.3627057 5.9206629 -0.44644117
6.8654847 5.8562679 -0.42105815
6.816781 6.1876664 -0.44530725
6.825901 6.5227194 -0.45509288
6.8155761 6.9357862 -0.45462486
6.7206931 7.1674905 -0.46332794
7.4943504 8.5000992 -0.57568556
7.0735502 8.5020771 -0.47434041
6.7319279 8.5779543 -0.50547975
6.6468811 8.9544716 -0.50629097
6.6233358 9.447732 -0.5196951
6.6245794 10.111233 -0.54771209
6.6118279 10.693727 -0.59058774
6.62427 11.437627 -0.61132026
6.2866635 11.606445 -0.60571146
5.8477597 11.617468 -0.62347567
5.8291922 12.431925 -0.67644954
5.8512101 13.365392 -0.68009651
5.7810903 14.402431 -0.74824214
5.8043714 15.637815 -0.77573496
15.691457 46.362179 -2.3079095
14.374103 46.787376 -2.3079095
13.045251 47.175152 -2.3079095
11.705964 47.525192 -2.3079095
10.357315 47.837219 -2.3079095
9.0003815 48.110985 -2.3079095
8.3191471 48.233448 -2.3079095
8.9987745 -48.102394 -2.4863262
10.355466 -47.828678 -2.4863262
11.703875 -47.516708 -2.4863262
13.042921 -47.166729 -2.4863262
14.371536 -46.779026 -2.4863262
4.0582709 -11.95892 -0.67686075
4.0224133 -10.781493 -0.5926674
4.8955264 -12.093119 -0.64878422
3.9080439 -8.9448872 -0.5115512
3.8902948 -8.2602997 -0.45514876
3.9141433 -7.6777411 -0.44345328
3.8844795 -7.142077 -0.41104722
3.7736077 -6.509438 -0.36747858
3.9128394 -6.3490424 -0.38961229
4.0921111 -6.2559934 -0.37269345
4.5746045 -6.5459175 -0.40721926
3.8561919 -5.2612338 -0.31583706
4.084868 -5.2511053 -0.34749347
5.3016896 -6.3747044 -0.41534865
5.6279421 -6.3694849 -0.46451795
5.9670568 -6.3835478 -0.44931474
5.2621794 -5.3325157 -0.35599357
5.4624968 -5.2711344 -0.41222936
5.8367248 -5.3082213 -0.3925983
6.2159066 -5.3135037 -0.42177966
6.5389056 -5.2770233 -0.41668439
6.974587 -5.3134232 -0.42559448
7.2268863 -5.1941967 -0.46601027
9.2468147 -6.2598972 -0.60719866
9.3391104 -5.9241424 -0.55434906
9.2543173 -5.5569963 -0.53225857
9.2468987 -5.208642 -0.54887915
9.8389454 -5.1405044 -0.54830939
10.557499 -5.0950942 -0.60650361
11.300386 -5.1192932 -0.64276433
12.064015 -5.0297432 -0.66941011
13.208381 -5.0829959 -0.71361691
30.923807 -10.944148 -1.6662811
30.961344 -9.967454 -1.6653603
30.938606 -9.0136442 -1.6535137
30.76384 -7.9753737 -1.6474551
30.706106 -7.0814853 -1.6148368
36.639706 -7.3459172 -1.8678592
39.243301 -6.7082496 -2.0486529
14.260161 -2.0394509 -0.72441036
8.8443918 -1.0189627 -0.46950138
8.9073954 -0.77884114 -0.43659645
8.9419403 -0.51982433 -0.47111443
8.9096203 -0.26460239 -0.42521372
8.9382982 0.017001102 -0.46916142
8.7944031 0.22108616 -0.45763844
9.9530897 0.55920511 -0.49101195
9.8406734 0.82848299 -0.51673388
9.8538904 1.112747 -0.4888171
9.9302082 1.4010627 -0.53863555
8.9966888 1.5279889 -0.46826893
8.7826548 1.7782065 -0.43274191
8.6982813 2.0070028 -0.46069145
8.7061634 2.2918432 -0.48731264
8.7204189 2.5117579 -0.47849685
8.747365 2.8276389 -0.47359872
8.6853104 3.1010432 -0.48061144
8.7444181 3.3552852 -0.44329703
8.6813898 3.6070874 -0.4513585
8.6878004 3.9215407 -0.49724665
8.7308664 4.2152991 -0.47126275
8.5625687 4.4760303 -0.50587207
8.8770514 4.9497018 -0.50615346
8.8330622 5.2789354 -0.5322206
8.8290997 5.6491418 -0.55480915
11.001723 7.4314456 -0.69899148
8.287921 5.9702439 -0.50581229
7.8446002 5.9581022 -0.47133365
7.3895297 5.9706359 -0.49027991
6.8495593 5.8688636 -0.48547888
6.8520684 6.1956663 -0.51534331
6.8202019 6.5521359 -0.49815336
6.84092 6.9226322 -0.50529695
6.7674541 7.2164788 -0.51853669
7.4893222 8.5190887 -0.53616023
7.0939183 8.5380793 -0.57637793
6.7293181 8.5004444 -0.57698745
6.6204901 8.9563465 -0.57054532
6.6302557 9.4592657 -0.59154338
6.6381879 10.107924 -0.62178677
6.5757236 10.672613 -0.63943136
6.6059475 11.43961 -0.67662776
6.2768798 11.598631 -0.67866093
5.8606553 11.582716 -0.65294385
5.8418636 12.446242 -0.74277097
5.8237581 13.379121 -0.77574307
5.805089 14.438667 -0.79913121
5.8068352 15.657788 -0.85407984
15.688655 46.353901 -2.4863262
14.371536 46.779026 -2.4863262
13.042921 47.166729 -2.4863262
11.703875 47.516708 -2.4863262
10.355466 47.828678 -2.4863262
8.9987745 48.102394 -2.4863262
8.3176613 48.224834 -2.4863262
8.9970484 -48.093163 -2.6647096
10.353479 -47.819504 -2.6647096
11.701629 -47.507591 -2.6647096
13.040419 -47.157681 -2.6647096
14.368778 -46.77005 -2.6647096
4.0799212 -11.984701 -0.69832575
3.9728496 -10.772904 -0.61542404
4.8909593 -12.072236 -0.73384225
3.8872778 -8.9383268 -0.54396445
3.8737075 -8.2844105 -0.49651945
3.8844903 -7.6659012 -0.51482779
3.8828661 -7.1503687 -0.44723916
3.7880156 -6.463357 -0.38933665
3.9135568 -6.3352151 -0.38887364
4.1047211 -6.2234602 -0.43801272
4.570076 -6.5360322 -0.42234528
3.9274893 -5.2757835 -0.34557751
4.0896802 -5.2198186 -0.33833337
5.32302 -6.3617039 -0.43672088
4.6832609 -5.3036027 -0.39009151
4.968864 -5.2911248 -0.40987357
5.2193584 -5.2934265 -0.41671705
5.508131 -5.2513046 -0.42204657
5.8746219 -5.2845478 -0.45235229
6.1760764 -5.270647 -0.44452968
6.5613699 -5.3328838 -0.47039232
6.9108624 -5.2763481 -0.46574667
7.2291493 -5.2034707 -0.49360657
9.2473354 -6.2594504 -0.60743243
9.3061657 -5.9168162 -0.63475609
9.3313141 -5.5234671 -0.56383181
9.2700682 -5.173728 -0.56660414
9.8282223 -5.1337409 -0.59237212
10.553823 -5.103498 -0.61921304
11.197215 -5.0626154 -0.69810283
12.010962 -5.0432849 -0.73059624
13.254723 -5.1103587 -0.77133262
30.740843 -10.87094 -1.7681861
30.92737 -9.9521608 -1.7355992
30.935375 -8.9915018 -1.7179809
30.879522 -8.0185432 -1.7180686
30.882605 -7.1156316 -1.7594625
36.829269 -7.4066753 -2.067306
39.168884 -6.7094221 -2.1746669
14.245807 -2.0317938 -0.80116284
8.8588047 -1.0039833 -0.48545435
8.9417706 -0.74347693 -0.47410727
8.9336338 -0.50945681 -0.48563603
8.9525738 -0.24564324 -0.48031008
8.9303417 -0.0082308017 -0.48410457
8.8495197 0.22614047 -0.47882161
9.967042 0.56747323 -0.49025184
9.897481 0.84488338 -0.54793203
9.8495941 1.1400052 -0.53669542
9.9066858 1.4194632 -0.5285477
8.9224844 1.5680496 -0.47759068
8.7298994 1.7722622 -0.44458133
8.6980257 1.9516243 -0.48528731
8.7154922 2.2574947 -0.49342036
8.7196302 2.5329149 -0.50236768
8.7107067 2.7764151 -0.47727761
8.7073612 3.0941331 -0.50173008
8.7130117 3.3533335 -0.5238924
8.6716785 3.6563799 -0.49985194
8.6619186 3.9416251 -0.54202139
8.7249069 4.2243767 -0.5311321
8.5590162 4.4976816 -0.5267036
8.8954039 4.9207029 -0.59093338
8.8930302 5.2742891 -0.56816095
8.8800316 5.605021 -0.55121458
11.028739 7.4105082 -0.72797447
8.3205051 5.950284 -0.56476843
7.8126211 5.9246116 -0.53665125
7.3806105 5.9430394 -0.5305146
6.8394485 5.8465428 -0.50723541
6.871582 6.2003555 -0.49036586
6.8341265 6.5596342 -0.49836716
6.8315744 6.9665027 -0.53434581
6.7245665 7.2240252 -0.49059683
7.4965248 8.5016336 -0.61987418
7.1075106 8.5341272 -0.62147164
6.7264752 8.5630045 -0.59658176
6.6561012 8.9499779 -0.58606946
6.6040225 9.4895344 -0.65261072
6.6128645 10.13166 -0.66302657
6.6003485 10.665667 -0.69974458
6.637949 11.430585 -0.73704278
6.3132825 11.614809 -0.70345145
5.8818307 11.589352 -0.71374798
5.8244877 12.470045 -0.70996994
5.829833 13.351564 -0.77925998
5.811646 14.426107 -0.86125857
5.8264318 15.682564 -0.92010832
15.685645 46.345009 -2.6647096
14.368778 46.77005 -2.6647096
13.040419 47.157681 -2.6647096
11.701629 47.507591 -2.6647096
10.353479 47.819504 -2.6647096
8.9970484 48.093163 -2.6647096
8.3160658 48.215584 -2.6647096
8.9952021 -48.083298 -2.8430576
10.351355 -47.809689 -2.8430576
11.699228 -47.497845 -2.8430576
13.037744 -47.148003 -2.8430576
14.36583 -46.760452 -2.8430576
4.0322685 -11.984019 -0.74991953
4.0265241 -10.755913 -0.67970055
4.8862729 -12.131402 -0.76749361
3.8517935 -8.8308201 -0.55864382
3.872648 -8.2829657 -0.52544421
3.8490477 -7.6412983 -0.52562237
3.8574204 -7.1807318 -0.4871034
3.7540178 -6.4977369 -0.45845532
3.9177599 -6.3330741 -0.44149235
4.0254707 -6.1069045 -0.40870351
4.0386281 -5.7463861 -0.4105064
3.8948503 -5.2378855 -0.34288636
4.0915418 -5.2569232 -0.38241053
4.4623952 -5.3143921 -0.4031004
4.6712132 -5.3039384 -0.41984323
4.9530048 -5.3238778 -0.41635382
5.2153702 -5.3187523 -0.41571137
5.4869375 -5.2424111 -0.46779963
5.8766108 -5.2953515 -0.4858861
6.1829348 -5.2889628 -0.51524162
6.5750089 -5.2791238 -0.51583266
6.9481239 -5.2832055 -0.50238997
7.1996241 -5.2072024 -0.50670671
9.280139 -6.2934785 -0.66986734
9.3124933 -5.8953695 -0.61518013
9.2928543 -5.5255761 -0.63015693
9.2686157 -5.2065792 -0.63519591
9.8267918 -5.1272888 -0.66633099
10.530008 -5.118721 -0.70569861
11.20175 -5.0387616 -0.71181566
12.036774 -5.0205173 -0.72496676
13.193426 -5.0834975 -0.80389673
30.703426 -10.865043 -1.9051093
30.96217 -9.9620543 -1.8651692
30.973236 -8.9972343 -1.8481277
31.056957 -8.0810661 -1.8562207
31.064598 -7.0999351 -1.8443782
36.974987 -7.4210501 -2.2045639
39.23653 -6.724226 -2.3294291
14.250858 -2.0279012 -0.83361626
8.8503284 -1.0076694 -0.51209289
8.9448442 -0.78908414 -0.51354599
8.8949394 -0.51323938 -0.57024783
8.9584408 -0.25521076 -0.505813
8.9519291 -0.018442387 -0.52007008
8.7693386 0.22290173 -0.5218845
9.9884148 0.56161094 -0.58954757
9.8359385 0.86146909 -0.57380718
9.8704081 1.1074457 -0.55640596
9.9256382 1.4087169 -0.54750842
8.9598827 1.5155444 -0.52665859
8.72192 1.7454985 -0.5322544
8.7421274 2.0084274 -0.51577508
8.6858664 2.2525728 -0.50855172
8.6807451 2.5305967 -0.56150049
8.7923708 2.7979565 -0.50573963
8.781435 3.1162469 -0.56535268
8.7045622 3.3643253 -0.537166
8.6847029 3.6275129 -0.53631854
8.6788254 3.9589615 -0.58184892
8.7313204 4.2204866 -0.53948325
8.5744038 4.4520206 -0.55569959
8.9135885 4.9531589 -0.58163971
8.8283825 5.2680225 -0.63538748
8.8386602 5.6048636 -0.61739784
11.050137 7.4361105 -0.77730167
8.2970238 5.9415374 -0.58080745
7.837646 5.9362473 -0.55810779
7.352438 5.9734845 -0.56652361
6.8649206 5.8259821 -0.5266664
6.8778396 6.199264 -0.52497715
6.8743558 6.5306835 -0.5553779
6.8739905 6.9380021 -0.55196768
6.7310061 7.2366071 -0.56979418
7.5010729 8.538661 -0.64088202
7.0682058 8.5354452 -0.62205023
6.7413564 8.5752878 -0.58533943
6.6275659 8.9478903 -0.6645968
6.6145353 9.458415 -0.6717177
6.637537 10.092807 -0.67854196
6.5978417 10.707301 -0.73330927
6.6092396 11.471543 -0.75808513
6.2760367 11.604827 -0.74157095
5.8680053 11.603208 -0.76146215
5.866847 12.414419 -0.7953192
5.8540154 13.4151 -0.81674719
5.8058834 14.452326 -0.90725082
5.8229656 15.681177 -0.97505462
15.682426 46.335499 -2.8430576
14.36583 46.760452 -2.8430576
13.037744 47.148003 -2.8430576
11.699228 47.497845 -2.8430576
10.351355 47.809689 -2.8430576
8.9952021 48.083298 -2.8430576
8.3143597 48.205688 -2.8430576
8.9932365 -48.072788 -3.021368
10.349092 -47.799244 -3.021368
11.696671 -47.487465 -3.021368
13.034894 -47.137703 -3.021368
14.362691 -46.750237 -3.021368
4.0585494 -11.980371 -0.78008121
3.997242 -10.80408 -0.71684313
4.8716736 -12.094482 -0.79086995
3.8550961 -8.8417835 -0.62266445
3.8923264 -8.2866163 -0.55358493
3.8849475 -7.6834469 -0.52080286
3.8653197 -7.1522532 -0.497201
3.7474365 -6.4966083 -0.4929333
3.8758943 -6.3655248 -0.45595932
3.9750407 -6.1448765 -0.43833089
4.0052981 -5.7872729 -0.42213136
3.8850081 -5.3208776 -0.41197911
4.1281862 -5.2277665 -0.42688859
4.4260125 -5.3215723 -0.42486924
4.6949191 -5.3354654 -0.39782318
4.9339242 -5.3459129 -0.44428882
5.2414465 -5.3180604 -0.48307353
5.4695182 -5.2778249 -0.45556301
5.824213 -5.2874198 -0.51767308
6.2013092 -5.2699738 -0.48766163
6.5475793 -5.3009353 -0.4770698
6.954679 -5.2869749 -0.50920177
